# .PCD v0.7 - Point Cloud Data file format
VERSION 0.7
FIELDS x y z normal_x normal_y normal_z curvature
SIZE 4 4 4 4 4 4 4
TYPE F F F F F F F
COUNT 1 1 1 1 1 1 1
WIDTH 588
HEIGHT 1
VIEWPOINT 0 0 0 1 0 0 0
POINTS 588
DATA ascii
-5.0656319e-09 0.031215267 -0.031047652 -1 -4.3705711e-08 1.1920735e-07 0
-4.7304827e-09 0.031280894 -0.028212149 -1 -4.3708837e-08 1.1921298e-07 0
-4.3676125e-09 0.03128523 -0.025166586 -1 -4.3706123e-08 1.1920551e-07 0
-3.8417913e-09 0.031201893 -0.020786237 -1 -4.3713303e-08 1.1921071e-07 0
-3.2786882e-09 0.03126831 -0.016038233 0.99999762 -0.0019261315 0.0010296942 8.4821804e-05
-2.9052081e-09 0.031249674 -0.012912087 0.99999082 -0.0039955494 0.0015616368 0.00016733116
-2.2652724e-09 0.031205177 -0.0075602345 0.99998701 -0.0050806468 0.000419977 0.0001689926
-2.0785087e-09 0.031286512 -0.0059637241 0.99998355 -0.0055460506 0.0014623764 0.00018052642
-1.8451324e-09 0.031283554 -0.0040071062 0.99997711 -0.0065154396 0.0018317479 0.00020451122
-1.4228302e-09 0.031228233 -0.00048486289 0.99997389 -0.0072184443 0.00030981441 0.00021955067
-1.2354351e-09 0.031285822 0.0011082371 -0.99997467 0.0071034157 0.00034511951 0.0002073815
-1.0861393e-09 0.031278908 0.002358085 0.99996138 -0.0087703941 0.00059513067 0.00025146312
-4.3492637e-10 0.031200711 0.0077921809 -0.99996549 0.0078685908 0.0026361402 0.00025939403
-4.0024395e-10 0.031258244 0.0081042154 -0.99996674 0.007638081 0.0028518273 0.00025239491
2.1029554e-09 0.031205254 0.029083138 -1 -4.3714255e-08 1.1921249e-07 0
3.1765954e-09 0.031227386 0.038097601 0.99995989 0.0011090748 0.0088899834 0.00030405828
3.6225867e-09 0.031260032 0.041850816 0.99993294 0.0023014229 0.011353524 0.0004110712
3.7945123e-09 0.031245712 0.043287784 0.9998976 0.0030389458 0.013978737 0.00051747024
4.0412433e-09 0.031260498 0.045362934 0.9998343 0.0030644955 0.017945273 0.00068356388
6.6174346e-09 0.03120115 0.066951826 -0.99990928 0.0080240015 0.010818597 0.00042796994
6.6667329e-09 0.031290554 0.067398161 -0.99991983 0.0076154317 0.010119228 0.00040472666
6.7342265e-09 0.031232851 0.067943171 -0.99992687 0.006944071 0.0099003725 0.00039170776
6.7597323e-09 0.031205382 0.068147056 -0.99993336 0.0070028058 0.0091771642 0.00043656377
7.0533903e-09 0.031235904 0.070621632 -0.99999595 0.00275336 0.00073384214 0.00059042958
8.0344265e-09 0.031256821 0.078858837 0.99975359 0.0046161083 0.021713614 0.00073906902
-9.2139771e-09 0.031313926 -0.065810308 -1 -4.371514e-08 1.1922678e-07 0
-8.9779633e-09 0.031341013 -0.063820548 -1 -4.3718504e-08 1.1920788e-07 0
-8.5431902e-09 0.031386863 -0.060156602 -1 -4.3712344e-08 1.1920306e-07 0
-8.1210612e-09 0.031377908 -0.056618813 -1 -4.3713868e-08 1.19218e-07 0
-7.8929698e-09 0.03132027 -0.054726575 -1 -4.3704951e-08 1.1920218e-07 0
-6.8672237e-09 0.031310204 -0.046125688 -1 -4.3703022e-08 1.1920826e-07 0
-6.4782402e-09 0.03134698 -0.042849172 -1 -4.3713921e-08 1.1921183e-07 0
-3.5055554e-09 0.031337157 -0.017916085 -1 -4.3713491e-08 1.1921054e-07 0
-2.8633651e-09 0.031387124 -0.012510682 0.99999076 -0.0040763142 0.0013183277 0.00016707272
-2.7686509e-09 0.031377867 -0.011719557 0.99998987 -0.0043438096 0.0011547771 0.00016978696
-2.1623121e-09 0.031378701 -0.0066329148 0.99998784 -0.0048649739 0.00080264214 0.00016452816
-1.6781141e-09 0.031322323 -0.0025918398 0.99997371 -0.0069077155 0.0022028955 0.00021460962
-1.6409518e-09 0.031380259 -0.0022588552 0.9999733 -0.0070841163 0.0017874751 0.0002154234
-1.199769e-09 0.031363249 0.0014358161 0.99997431 -0.0071630189 0.00016581865 0.00021030892
-1.0661418e-09 0.031397592 0.0025693558 0.99996066 -0.0088700224 0.00025249133 0.00025438398
-5.3194327e-10 0.031375624 0.0070424806 -0.99995887 0.0088066244 0.002186816 0.00027514002
-4.6001242e-10 0.031345163 0.007634711 -0.99996614 0.0078472104 0.0024644565 0.00025525544
-3.3419478e-10 0.031366576 0.0086979987 -0.99997455 0.0066404687 0.0025965772 0.00021893413
7.6427376e-10 0.031345677 0.017904958 -1 -4.3709591e-08 1.1921065e-07 0
9.6744235e-10 0.031392809 0.019626541 -1 -4.3714223e-08 1.1920983e-07 0
1.1813627e-09 0.031324808 0.021396099 -1 -4.3711406e-08 1.1920973e-07 0
1.5760908e-09 0.031314842 0.024703663 -1 -4.371168e-08 1.1920913e-07 0
1.972934e-09 0.03133041 0.028038334 -1 -4.3715389e-08 1.1921168e-07 0
1.9902227e-09 0.031377848 0.028200755 -1 -4.3717868e-08 1.1921006e-07 0
2.5222517e-09 0.031346455 0.032652229 -1 -4.3710216e-08 1.1921611e-07 0
6.3288348e-09 0.0313171 0.0645734 -0.99983519 0.0086229118 0.015977416 0.00062612013
6.3549264e-09 0.031300947 0.064786345 -0.99983817 0.0083369063 0.01594268 0.00062078395
6.7131216e-09 0.031321354 0.067798592 -0.99992645 0.0071694911 0.0097825974 0.00039083054
6.9387451e-09 0.031313431 0.06968835 -0.99999374 0.0028189751 0.002137769 0.00056956161
6.9742274e-09 0.031382009 0.070011146 -0.99999458 0.0029540404 0.0014642265 0.00057096366
7.5051778e-09 0.031319842 0.074442282 0.9999848 -0.00064185169 0.0054775681 0.00057918782
7.8649087e-09 0.031368688 0.077477835 0.99982786 0.0043086992 0.018046025 0.00059032039
-0.00052488805 0.031457193 -0.078883305 -0.9995116 -0.013197149 0.028328341 0.0012210154
-9.399832e-09 0.031488579 -0.067305334 -1 -4.3720238e-08 1.1923143e-07 0
-9.1853947e-09 0.031497691 -0.065503158 -1 -4.3714287e-08 1.1921578e-07 0
-8.751722e-09 0.031432148 -0.061889283 -1 -4.3714405e-08 1.1921671e-07 0
-8.3057303e-09 0.031430788 -0.058148537 -1 -4.3721009e-08 1.1921e-07 0
-7.2051245e-09 0.031470239 -0.048901521 -1 -4.371454e-08 1.1921782e-07 0
-6.7004793e-09 0.031419646 -0.044686805 -1 -4.370569e-08 1.1919897e-07 0
-6.4142403e-09 0.031432129 -0.04228108 -1 -4.370915e-08 1.1920545e-07 0
-5.8363501e-09 0.031486709 -0.03741337 -1 -4.3712372e-08 1.1920422e-07 0
-5.5662084e-09 0.031483952 -0.03514827 -1 -4.3711665e-08 1.1920952e-07 0
-4.965333e-09 0.031456154 -0.030117955 -1 -4.3706251e-08 1.1921138e-07 0
-4.8501265e-09 0.031468969 -0.029146835 -1 -4.3707143e-08 1.1921105e-07 0
-4.3327422e-09 0.031459842 -0.024810044 -1 -4.3706446e-08 1.1920569e-07 0
-3.2271432e-09 0.031410459 -0.015553719 0.99999768 -0.0019682217 0.0009136743 8.6053507e-05
-2.7928995e-09 0.031423595 -0.011906202 0.99999046 -0.0042351345 0.001116869 0.00016788938
-1.1097834e-10 0.031477023 0.010610973 -0.99998784 0.004547379 0.0019017298 0.00015743317
2.4784996e-10 0.031465553 0.013616835 -0.99999452 0.0027828384 0.0017929235 0.00011085939
6.9314254e-10 0.031463772 0.017351568 -1 -4.3708066e-08 1.1920903e-07 0
1.1041871e-09 0.0314251 0.020785479 -1 -4.3711161e-08 1.1920883e-07 0
1.8117809e-09 0.031428996 0.026722632 -1 -4.3714675e-08 1.1921189e-07 0
2.2624704e-09 0.031443574 0.030508636 -1 -4.3708436e-08 1.1922009e-07 0
2.3261078e-09 0.031425379 0.031035794 -1 -4.3707836e-08 1.1921682e-07 0
2.8468066e-09 0.031437181 0.035408057 0.99999708 0.00038450272 0.0023937717 9.6473821e-05
6.8381167e-09 0.031410601 0.06887985 -0.99998671 0.0037312817 0.0035580308 0.00053369376
7.4878788e-09 0.031458568 0.07434804 0.99998641 -0.00069450622 0.0051599657 0.0005673549
7.6178539e-09 0.031467136 0.075441487 0.99995619 0.0014622053 0.009240929 0.00055617891
7.8459541e-09 0.031495269 0.077365249 0.99983531 0.0040993541 0.01768068 0.00058396888
-0.00041441229 0.031538624 0.079032771 0.99972939 0.0056104544 0.022573749 0.00075582182
-1.0296702e-08 0.031536441 -0.074811272 -0.99980843 -0.0070620799 0.01825585 0.00076673168
-9.1160901e-09 0.031513322 -0.064916059 -1 -4.3725773e-08 1.1920233e-07 0
-7.9977012e-09 0.031524688 -0.055530172 -1 -4.3714845e-08 1.1921125e-07 0
-6.726375e-09 0.031580944 -0.044844888 -1 -4.3699735e-08 1.1919603e-07 0
-6.530354e-09 0.031554766 -0.043210145 -1 -4.3708834e-08 1.1920148e-07 0
-6.3178995e-09 0.031522181 -0.041439895 -1 -4.3707413e-08 1.1920478e-07 0
-5.9248371e-09 0.031515606 -0.038145058 -1 -4.3712411e-08 1.1920237e-07 0
-5.7986291e-09 0.031586226 -0.037060454 -1 -4.3714337e-08 1.1920815e-07 0
-4.3386272e-09 0.03153443 -0.024832062 -1 -4.370661e-08 1.1920764e-07 0
-4.2227737e-09 0.031503465 -0.023871567 -1 -4.3710791e-08 1.1920932e-07 0
-4.1863757e-09 0.031555798 -0.023547051 -1 -4.3710337e-08 1.1921072e-07 0
-4.0800874e-09 0.03154438 -0.02265963 -1 -4.3709274e-08 1.1920915e-07 0
-3.9104222e-09 0.031574998 -0.021225145 -1 -4.3713353e-08 1.1921026e-07 0
-3.4167771e-09 0.0315932 -0.017077476 -1 -4.3714884e-08 1.1921169e-07 0
-3.2797849e-09 0.031503905 -0.015961045 0.9999994 -0.00097593287 0.00048431181 3.6958114e-05
-2.6102764e-09 0.03156548 -0.010322222 0.99998945 -0.0045535634 0.00064250146 0.00016799607
-2.1842645e-09 0.031557132 -0.0067516379 0.99998856 -0.0046860529 0.0010149615 0.00016066025
-2.1734623e-09 0.031568054 -0.0066570179 0.99998862 -0.0046721771 0.0009947496 0.00016058065
-1.7827888e-09 0.03159203 -0.0033710194 0.99997681 -0.0063781482 0.0023937461 0.00019619425
-1.6080901e-09 0.031523332 -0.0019307301 0.9999736 -0.0071256799 0.0014421928 0.00021382085
-1.6019762e-09 0.031502135 -0.0018872159 0.99997395 -0.007081572 0.0013609389 0.00021324187
-1.5495317e-09 0.031568483 -0.0014229517 0.99997389 -0.0071624503 0.00097739149 0.00021911925
1.7726598e-11 0.031533375 0.01171129 -0.99999279 0.003446816 0.0015559433 0.00012757412
1.1997459e-10 0.031560205 0.012578845 -0.99999422 0.0030107128 0.0015958042 0.00011549313
6.6900674e-10 0.031564813 0.017186152 -1 -4.3709779e-08 1.1920864e-07 0
9.1260333e-10 0.031543717 0.019221852 -1 -4.3711786e-08 1.1920994e-07 0
1.5502398e-09 0.031578235 0.024583388 -1 -4.3711008e-08 1.192098e-07 0
1.5559088e-09 0.031582348 0.024632452 -1 -4.3711033e-08 1.192098e-07 0
1.8695032e-09 0.031537022 0.027246453 -1 -4.3715456e-08 1.1920982e-07 0
2.1621527e-09 0.031586781 0.029719621 -1 -4.3712149e-08 1.1921635e-07 0
6.6689307e-09 0.031589217 0.06752611 -0.99992657 0.007368823 0.0096163126 0.00039546509
6.7128467e-09 0.031505417 0.067863777 -0.99992943 0.0070970627 0.0095258541 0.00039200293
7.6029387e-09 0.031544931 0.075344898 0.99996603 0.00078652805 0.0082073454 0.00059022591
7.9241698e-09 0.031519592 0.078030288 0.99980426 0.0044519096 0.019276399 0.00064504903
-0.00038368374 0.031622428 -0.07896851 -0.99950254 -0.012711167 0.028865634 0.001246135
-0.00016209764 0.031610683 0.045665599 0.99982595 0.0025671127 0.018479152 0.00073214807
-8.7579908e-09 0.031625703 -0.061870903 -1 -4.3710589e-08 1.1920396e-07 0
-7.9697813e-09 0.031664182 -0.055244811 -1 -4.371109e-08 1.1920881e-07 0
-6.8925976e-09 0.031613696 -0.046227254 -1 -4.370769e-08 1.1920824e-07 0
-6.6905543e-09 0.031615738 -0.044531643 -1 -4.369992e-08 1.1919646e-07 0
-4.3562345e-09 0.031664189 -0.024932181 -1 -4.3708468e-08 1.1920858e-07 0
-3.5990775e-09 0.031616013 -0.018598357 -1 -4.3716742e-08 1.1921267e-07 0
-3.3696277e-09 0.031678673 -0.016650619 -1 -4.3712934e-08 1.1921112e-07 0
-3.0450604e-09 0.031663366 -0.013933563 0.99999505 -0.0029770818 0.0010228649 0.00012539141
-2.9940646e-09 0.031617705 -0.013522521 0.99999386 -0.0033090808 0.0011229349 0.0001370847
-2.4279387e-09 0.031652976 -0.0087605808 0.9999907 -0.0042996202 0.00045120696 0.00014649848
-2.176356e-09 0.031644329 -0.006653321 0.99998856 -0.0046690446 0.0010244827 0.00016072459
-2.0270639e-09 0.031668223 -0.0053922101 0.99998391 -0.0055579632 0.0011907733 0.00017716261
-1.6200565e-09 0.031692695 -0.0019690108 0.99997318 -0.007155797 0.0015629841 0.00021388142
-6.2693717e-10 0.031688668 0.0063604005 -0.99996376 0.0082879141 0.0019503157 0.0002541533
-6.1025884e-10 0.031679384 0.0064969053 -0.99996448 0.0081857368 0.0020184009 0.0002546148
-2.5314417e-10 0.031659644 0.0094853602 -0.99997681 0.0061935307 0.0028273377 0.00020416883
-1.5042123e-10 0.031606589 0.010327609 -0.99998641 0.0048029767 0.0020381091 0.0001626656
1.3170232e-10 0.031630456 0.012702985 -0.9999941 0.0030337828 0.0016255924 0.00011554929
1.1091764e-09 0.031616215 0.020897411 -1 -4.3710592e-08 1.1920873e-07 0
1.5390512e-09 0.031606916 0.02450005 -1 -4.3710607e-08 1.1920899e-07 0
6.4832428e-09 0.031605478 0.065974407 -0.9998706 0.0079919752 0.013959756 0.00055589981
7.3350708e-09 0.031613279 0.073122919 0.99998873 -0.0010670137 0.0046305023 0.00053824851
7.848449e-09 0.031639215 0.077438958 0.99982709 0.004077021 0.018144436 0.0005977932
8.0401774e-09 0.031685624 0.07906431 0.99972701 0.0055340952 0.022698503 0.00076168589
-1.0780706e-08 0.031741355 -0.078796253 -0.99952418 -0.012435579 0.028225616 0.0012211743
-1.0693956e-08 0.031704165 -0.078082182 -0.99963802 -0.0103047 0.024852417 0.0010982176
-1.0464172e-08 0.031711835 -0.076151796 -0.99973303 -0.0082339095 0.021593241 0.00091375882
-1.0286842e-08 0.031712558 -0.074663989 -0.99981505 -0.0075379908 0.017695144 0.00074658328
-8.986496e-09 0.031789754 -0.06372758 -1 -4.3721062e-08 1.1920214e-07 0
-7.9151476e-09 0.031728603 -0.054762889 -1 -4.3711307e-08 1.1922128e-07 0
-7.7843536e-09 0.031760652 -0.053653959 -1 -4.3711072e-08 1.1920642e-07 0
-7.7220479e-09 0.031795751 -0.05311843 -1 -4.3708084e-08 1.1920874e-07 0
-7.436479e-09 0.031767543 -0.050733246 -1 -4.3708404e-08 1.1920343e-07 0
-7.3290858e-09 0.031739276 -0.049842734 -1 -4.3712433e-08 1.1921423e-07 0
-6.8109069e-09 0.031756576 -0.045489594 -1 -4.369932e-08 1.1919765e-07 0
-5.9110423e-09 0.03170624 -0.037959438 -1 -4.3712362e-08 1.1920345e-07 0
-5.8788814e-09 0.031773869 -0.037664853 -1 -4.3715243e-08 1.1920672e-07 0
-5.65195e-09 0.031739492 -0.035773821 -1 -4.3711477e-08 1.1920514e-07 0
-5.5460458e-09 0.031786777 -0.034868095 -1 -4.3706173e-08 1.1920658e-07 0
-4.1662052e-09 0.031701185 -0.023324536 -1 -4.3711331e-08 1.1921169e-07 0
-2.9732647e-09 0.031793822 -0.01328346 0.9999938 -0.0033922398 0.00094443077 0.00013893569
-1.697822e-09 0.031718966 -0.0026117207 0.99997377 -0.0069402889 0.0020878073 0.00020828827
-1.5732087e-09 0.031725261 -0.0015640795 0.99997371 -0.0071763671 0.0010524541 0.00021444928
-7.1156769e-10 0.031751793 0.0056736157 -0.99996173 0.0085727954 0.0017546845 0.00025988667
-3.2354175e-10 0.03174296 0.0089253737 -0.99997514 0.0065055378 0.0027149089 0.0002157963
4.7863657e-10 0.031766955 0.015663331 -1 -4.3711477e-08 1.1920967e-07 0
1.710689e-09 0.031766716 0.025998449 -1 -4.3714422e-08 1.1921075e-07 0
3.1154257e-09 0.031708781 0.037760988 0.99996614 0.00088635704 0.0081847999 0.00028019666
3.7802645e-09 0.031794693 0.043369565 0.99989611 0.0023718413 0.014222346 0.00052463915
7.0202937e-09 0.03176314 0.070537329 -0.99999541 0.0029276037 0.00079055544 0.00056722935
7.0393069e-09 0.031771757 0.070699982 -0.99999541 0.0029444564 0.00077085075 0.00057158055
7.1798403e-09 0.031733464 0.071864821 0.99999666 -0.0023072599 0.0011188937 0.00052897912
7.4375408e-09 0.031700123 0.074014343 0.99998564 -0.00031472495 0.0053565288 0.00058533531
-1.0604116e-08 0.031898789 -0.077257186 -0.99969131 -0.0086482083 0.023289572 0.0010136487
-1.0530187e-08 0.031859715 -0.07665135 -0.99970466 -0.008727313 0.02268053 0.00096917327
-9.7340598e-09 0.031812832 -0.069990143 -0.99995083 -0.003973132 0.0090940725 0.00035090387
-9.6410799e-09 0.031824891 -0.069205746 -0.99996555 -0.0035327435 0.0075110658 0.00028591524
-9.6015986e-09 0.031867605 -0.068858892 -0.99997044 -0.003073965 0.0070478111 0.00027889252
-8.812588e-09 0.031841531 -0.062249754 -1 -4.3707164e-08 1.1921867e-07 0
-8.6870866e-09 0.031808533 -0.061209075 -1 -4.3709232e-08 1.1920701e-07 0
-8.4652418e-09 0.031809013 -0.059347931 -1 -4.3703483e-08 1.1918367e-07 0
-7.9205007e-09 0.031846967 -0.05476439 -1 -4.3708805e-08 1.1922401e-07 0
-6.6633787e-09 0.0318496 -0.044217926 -1 -4.3705974e-08 1.1919924e-07 0
-5.7758718e-09 0.031894404 -0.036756549 -1 -4.3715481e-08 1.1921003e-07 0
-1.6454327e-09 0.031834356 -0.0021299361 0.99997354 -0.0070985174 0.0015875892 0.00021040064
-1.4678446e-09 0.031895291 -0.00061787665 0.9999764 -0.0068418034 0.00064764026 0.00021023801
-9.4936703e-10 0.031867597 0.003721273 -0.99996537 0.0083084833 0.0004025774 0.00024496912
-5.104816e-10 0.031804141 0.0073796432 -0.99997026 0.0074137105 0.0021409029 0.00023442283
1.6570705e-09 0.031885616 0.02559226 -1 -4.3714241e-08 1.1921095e-07 0
2.7222118e-09 0.031820726 0.03450352 -1 -4.3712856e-08 1.1920645e-07 0
3.3031324e-09 0.031873707 0.039396062 0.99994719 0.0010097404 0.010228418 0.00036010827
3.4188017e-09 0.031863496 0.040362619 0.99994272 0.0010417097 0.010651357 0.00037786242
6.7997554e-09 0.031896781 0.068736322 -0.99998939 0.0037288356 0.0027122465 0.00051762944
6.9121482e-09 0.03188194 0.069673702 -0.99999326 0.0031438302 0.0018789946 0.00054476119
7.8589775e-09 0.031863518 0.077609524 0.99981576 0.0043429262 0.018696398 0.00060923689
8.0204492e-09 0.031847429 0.078958146 0.99972767 0.0055580125 0.022665042 0.00075066084
8.0295779e-09 0.031854868 0.07903745 0.99972457 0.0055858819 0.022793824 0.00076916092
-6.4978572e-05 0.031893305 0.079276122 0.99971014 0.0057234559 0.023386214 0.00078873575
-0.00029585403 0.031920787 -0.078942806 -0.9994815 -0.012620111 0.029622 0.0012709736
-1.0631255e-08 0.031960752 -0.077462122 -0.99967301 -0.0089951772 0.023935443 0.0010511887
-1.0189654e-08 0.031931415 -0.073768459 -0.9998464 -0.0077584162 0.015716951 0.00067572983
-9.9847011e-09 0.031954851 -0.072040595 -0.99991059 -0.005630583 0.012128654 0.0004963128
-9.1829762e-09 0.031911362 -0.065331191 -1 -4.3721887e-08 1.19206e-07 0
-9.1731076e-09 0.03198215 -0.06522245 -1 -4.3724597e-08 1.1920694e-07 0
-8.9281089e-09 0.031902511 -0.06319645 -1 -4.3710379e-08 1.1921094e-07 0
-8.8325312e-09 0.031942688 -0.06237996 -1 -4.3711687e-08 1.192136e-07 0
-8.3222114e-09 0.031941302 -0.058099598 -1 -4.3723187e-08 1.192124e-07 0
-8.0889393e-09 0.031942528 -0.056142323 -1 -4.371833e-08 1.1922884e-07 0
-7.4061512e-09 0.031934533 -0.050417606 -1 -4.3713094e-08 1.1921314e-07 0
-7.4020496e-09 0.031900171 -0.050395802 -1 -4.3716291e-08 1.1921748e-07 0
-7.3485418e-09 0.031906154 -0.049944751 -1 -4.3710518e-08 1.1921307e-07 0
-6.9075816e-09 0.031906318 -0.046245653 -1 -4.3712582e-08 1.1921081e-07 0
-6.8594685e-09 0.031978995 -0.045815405 -1 -4.3705622e-08 1.1920928e-07 0
-6.5176256e-09 0.03198703 -0.042944867 -1 -4.3710717e-08 1.1920373e-07 0
-6.3321792e-09 0.03194065 -0.041406237 -1 -4.3703185e-08 1.1920601e-07 0
-4.7321529e-09 0.03193108 -0.027987754 -1 -4.3707335e-08 1.1920945e-07 0
-4.4900785e-09 0.031910297 -0.025964707 -1 -4.3713548e-08 1.192083e-07 0
-4.0136636e-09 0.031967804 -0.021947164 -1 -4.37118e-08 1.1920984e-07 0
-2.9396114e-09 0.031964969 -0.012938401 0.99999553 -0.00288117 0.00082312495 0.00011075883
-1.9794608e-09 0.031993907 -0.0048734653 0.99998164 -0.0057745529 0.0018444568 0.00018479741
-1.5409499e-09 0.031934738 -0.0012166647 0.99997413 -0.0071555679 0.00075322163 0.00021658646
-1.184623e-09 0.03192376 0.0017683968 -0.99998116 0.0061400263 0.00025020915 0.00017515454
-8.9775276e-10 0.031901095 0.0041665281 -0.99996454 0.0083898995 0.00063560391 0.00025381547
-5.0425941e-10 0.031914484 0.0074722981 -0.99997133 0.0072595999 0.0021654358 0.0002316738
1.3134371e-10 0.031943243 0.012814668 -0.9999941 0.0030421631 0.0015889572 0.00011268943
1.2520516e-09 0.031980705 0.022229584 -1 -4.3711239e-08 1.1920829e-07 0
2.2684619e-09 0.031923071 0.030734716 -1 -4.371358e-08 1.192134e-07 0
2.6122993e-09 0.031914886 0.033616032 -1 -4.3714351e-08 1.192082e-07 0
2.8029081e-09 0.031917091 0.035215784 0.99999702 0.00025012397 0.0024241814 9.7022727e-05
3.0416003e-09 0.031918522 0.037218604 0.99997503 0.0011636027 0.0069716792 0.00024688497
3.3320999e-09 0.031959247 0.039670423 0.99994773 0.00087149901 0.010185561 0.00036172461
4.0193275e-09 0.031973284 0.045440454 0.99986434 0.0021028372 0.016336247 0.00067338679
7.4299327e-09 0.031938851 0.074038059 0.99998552 0.00038610425 0.0053659398 0.00059855776
7.6116482e-09 0.031954046 0.075567968 0.99991173 0.003773618 0.012737638 0.00053098064
7.6314697e-09 0.031956051 0.07573498 0.9998855 0.0044725789 0.014460467 0.00049098564
-6.9956894e-09 0.032081354 -0.046920568 -1 -4.3713666e-08 1.1921222e-07 0
-6.6667134e-09 0.032084491 -0.04415977 -1 -4.3704521e-08 1.1920651e-07 0
-6.6543953e-09 0.032083414 -0.044056837 -1 -4.3702581e-08 1.1920427e-07 0
-6.2502314e-09 0.032063257 -0.040673852 -1 -4.3703835e-08 1.1920567e-07 0
-6.0448757e-09 0.032059222 -0.038952686 -1 -4.3709111e-08 1.1921246e-07 0
-5.5343534e-09 0.032028686 -0.034681309 -1 -4.3708393e-08 1.1920952e-07 0
-4.8906132e-09 0.032057069 -0.02927082 -1 -4.3707882e-08 1.1921199e-07 0
-4.6148045e-09 0.032080825 -0.026948459 -1 -4.3711342e-08 1.1920626e-07 0
-4.0448791e-09 0.03209158 -0.022163633 -1 -4.3711317e-08 1.1921004e-07 0
-3.7465329e-09 0.03202647 -0.019684797 -1 -4.371773e-08 1.1921371e-07 0
-3.3965122e-09 0.032057922 -0.016737079 -1 -4.3714749e-08 1.1921027e-07 0
-3.0309679e-09 0.032038629 -0.013677747 0.9999966 -0.0025004691 0.0008055637 9.9570359e-05
-2.6138747e-09 0.032051329 -0.010174259 0.99999225 -0.003872883 0.00063246343 0.00013658963
-2.1854791e-09 0.032022838 -0.0065910639 0.99999171 -0.0040343688 0.00051785493 0.00012740398
-1.7400825e-09 0.032071609 -0.0028369224 0.99997729 -0.0064813988 0.0018520327 0.00019392306
-1.5645923e-09 0.032093156 -0.0013569021 0.99997497 -0.0070058308 0.0010378695 0.00020995081
-1.5466507e-09 0.032045815 -0.0012237574 0.99997467 -0.0070673754 0.00077331229 0.00021383379
-1.4666011e-09 0.032025609 -0.00055966171 0.99997705 -0.0067503089 0.00060441357 0.0002075143
2.5243807e-10 0.032068349 0.013876354 -0.99999684 0.0022048275 0.0012239449 8.0918115e-05
9.1659857e-10 0.032059763 0.019444589 -1 -4.3710639e-08 1.1920876e-07 0
1.740638e-09 0.032007553 0.026337985 -1 -4.3711822e-08 1.1921185e-07 0
1.8812125e-09 0.032086261 0.027546071 -1 -4.3714525e-08 1.192086e-07 0
2.6753177e-09 0.032016724 0.034182008 -1 -4.3707892e-08 1.1920841e-07 0
3.9517056e-09 0.03205226 0.044902161 0.99986339 0.0018727549 0.016422439 0.00063339586
6.9639743e-09 0.03206712 0.070176348 -0.99999642 0.0025533072 0.0008482695 0.00053120783
7.3053652e-09 0.032091755 0.07304918 0.99998903 -0.00015924942 0.0046878783 0.00055701117
7.9888132e-09 0.032013632 0.07875371 0.99973559 0.0054009072 0.022349805 0.00073786685
-0.0005405416 0.032164697 -0.078581735 -0.99951684 -0.011004586 0.029068701 0.0012303215
-0.00058151258 0.032162417 0.045017615 0.99986613 0.0014662307 0.016299933 0.00064185099
-0.00037222652 0.032123808 0.078868851 0.99972177 0.0054146266 0.022956287 0.00075362698
-9.8327702e-09 0.032197852 -0.070677005 -0.99993593 -0.0045587327 0.010365291 0.0004157552
-9.4905266e-09 0.032130111 -0.067830898 -0.99999136 -0.0015137056 0.003875057 0.00017256736
-9.0853591e-09 0.032177884 -0.064414591 -1 -4.3716515e-08 1.1920095e-07 0
-8.6450997e-09 0.032169841 -0.060724378 -1 -4.3699195e-08 1.1917273e-07 0
-8.3149967e-09 0.032106567 -0.057978474 -1 -4.3714586e-08 1.1920331e-07 0
-8.1985236e-09 0.032155517 -0.056983482 -1 -4.3711729e-08 1.1920974e-07 0
-7.5671096e-09 0.032110918 -0.051703151 -1 -4.3711921e-08 1.1921232e-07 0
-7.1730399e-09 0.032118306 -0.048394743 -1 -4.3712198e-08 1.1920468e-07 0
-7.0633868e-09 0.032116599 -0.047475532 -1 -4.3710656e-08 1.1920557e-07 0
-6.2872427e-09 0.032152552 -0.040951584 -1 -4.3704734e-08 1.1920771e-07 0
-5.849432e-09 0.032146405 -0.037281215 -1 -4.3714355e-08 1.1920657e-07 0
-5.057931e-09 0.03215057 -0.030640097 -1 -4.3709527e-08 1.1921516e-07 0
-4.3761714e-09 0.032149322 -0.024921542 -1 -4.3711616e-08 1.1921172e-07 0
-3.610078e-09 0.032198414 -0.018477086 -1 -4.3710006e-08 1.1920994e-07 0
-2.1406168e-09 0.032100696 -0.0061861812 0.99999154 -0.0040289746 0.00088334316 0.00013250788
-5.1039495e-10 0.032161981 0.0075115804 -0.99997401 0.006930728 0.0020071894 0.00022095352
1.8175639e-09 0.032122087 0.027025282 -1 -4.3714753e-08 1.1921031e-07 0
2.2240338e-09 0.032116782 0.030433053 -1 -4.3712252e-08 1.1921284e-07 0
2.4982381e-09 0.032185189 0.032758329 -1 -4.3713065e-08 1.1921537e-07 0
3.188952e-09 0.032140505 0.038536076 0.99995703 0.00059845566 0.0092465989 0.00031993687
-8.5927815e-05 0.032117203 0.063887239 -0.99983519 0.0070306975 0.016739575 0.00060352671
6.6217787e-09 0.032185171 0.067349091 -0.99993366 0.0055995043 0.010067572 0.0003885187
7.0633011e-09 0.032157473 0.071042694 0.99999946 -0.00043914421 0.00094276079 0.00053384714
7.0718231e-09 0.032135371 0.071106076 0.99999946 -0.00040251471 0.0009055456 0.00053838937
7.3949069e-09 0.032183971 0.073834121 0.99998498 -0.00025926423 0.0054819994 0.00059340487
-0.0006716479 0.032258984 0.078503847 0.9997614 0.0049724807 0.021269165 0.00071350456
-1.0734404e-08 0.032293193 -0.078205496 -0.99953783 -0.010596627 0.028490609 0.0012098543
-1.0468344e-08 0.032266062 -0.075983584 -0.9997192 -0.0090450468 0.021903811 0.00092138909
-9.1444043e-09 0.032221951 -0.064893737 -1 -4.3716618e-08 1.1920282e-07 0
-8.9988141e-09 0.032247525 -0.063663065 -1 -4.3712173e-08 1.1919567e-07 0
-8.7065333e-09 0.032208543 -0.06122553 -1 -4.3704841e-08 1.1919587e-07 0
-8.1878602e-09 0.032202426 -0.056876827 -1 -4.3710482e-08 1.1921348e-07 0
-8.0659177e-09 0.032278027 -0.055826176 -1 -4.3721712e-08 1.1924108e-07 0
-7.8795557e-09 0.032220718 -0.054283876 -1 -4.3704521e-08 1.1920967e-07 0
-7.5217068e-09 0.032283649 -0.051258948 -1 -4.3717254e-08 1.1921384e-07 0
-7.3065096e-09 0.032238111 -0.04947044 -1 -4.3712667e-08 1.1921121e-07 0
-6.9297932e-09 0.032243423 -0.046308368 -1 -4.3715321e-08 1.1920878e-07 0
-6.5411165e-09 0.032258 -0.043042567 -1 -4.3711072e-08 1.1920839e-07 0
-6.2725412e-09 0.032224335 -0.040801939 -1 -4.3705821e-08 1.1920768e-07 0
-5.6704677e-09 0.032254405 -0.035740353 -1 -4.3712401e-08 1.1920586e-07 0
-4.7191895e-09 0.032296438 -0.027745042 -1 -4.3708365e-08 1.192123e-07 0
-4.5096873e-09 0.032256033 -0.026002424 -1 -4.3713982e-08 1.1920802e-07 0
-4.195015e-09 0.03221653 -0.023377247 -1 -4.3709637e-08 1.1920913e-07 0
-3.8100714e-09 0.032264672 -0.020130454 -1 -4.3714891e-08 1.1921232e-07 0
-3.3577945e-09 0.032230567 -0.016348986 -1 -4.3713648e-08 1.1920888e-07 0
-3.2618408e-09 0.032298531 -0.015519148 -1 -4.3711673e-08 1.1920874e-07 0
-2.8860596e-09 0.03220975 -0.012399421 0.9999938 -0.0033718799 0.00098327815 0.00012861563
-2.6654732e-09 0.032245208 -0.010536008 0.99999249 -0.0038039691 0.00070556317 0.00013612355
-1.4198914e-09 0.032231014 -9.251466e-05 0.99997717 -0.0067457017 0.00024256707 0.00020903525
-1.2922493e-09 0.032266952 0.00099140208 0.99998164 -0.0060604368 0.00016679305 0.000170814
-1.008606e-09 0.032244299 0.0033624682 0.99996752 -0.0080563016 -8.0345621e-05 0.00024028057
-4.907843e-10 0.03229339 0.0077242712 -0.99997437 0.0068216883 0.0021708284 0.0002231651
2.9350011e-10 0.032290451 0.014302248 -0.99999988 0.00047476852 0.00024532745 1.1762641e-05
5.2203231e-10 0.032233253 0.016198341 -1 -4.3711761e-08 1.1920798e-07 0
1.282545e-09 0.032248978 0.022583749 -1 -4.3711349e-08 1.1920746e-07 0
1.3684213e-09 0.0322037 0.023287529 -1 -4.3709967e-08 1.1920782e-07 0
1.6026753e-09 0.032204896 0.025253031 -1 -4.3712092e-08 1.1921003e-07 0
2.921875e-09 0.032266255 0.036341779 0.99998784 8.9942092e-05 0.0049341386 0.00017338298
3.0629663e-09 0.03223899 0.037515342 0.9999752 0.00081090344 0.0069952346 0.00024826126
3.1929268e-09 0.032243021 0.038607009 0.99995643 0.00059708243 0.00931093 0.00032259422
3.2942431e-09 0.03221469 0.039446522 0.99994946 0.00053743727 0.010032238 0.00035567593
3.903744e-09 0.032297764 0.044589851 0.99987882 0.0015791717 0.015488716 0.00060359266
-0.0009828289 0.032325968 0.078150682 0.99978161 0.0046938839 0.020368047 0.00067422184
-1.0778056e-08 0.032358959 -0.078547567 -0.9995085 -0.010955341 0.029371453 0.0012302968
-8.6293017e-09 0.032343503 -0.060528178 -1 -4.3696346e-08 1.1917392e-07 0
-8.5823952e-09 0.032394294 -0.060116071 -1 -4.3695451e-08 1.191493e-07 0
-7.0977904e-09 0.03235282 -0.047677513 -1 -4.3709246e-08 1.1920772e-07 0
-7.0339845e-09 0.032357883 -0.047140416 -1 -4.3711125e-08 1.192042e-07 0
-6.4664776e-09 0.032381758 -0.042371072 -1 -4.3712063e-08 1.1920069e-07 0
-6.453031e-09 0.03235754 -0.042267151 -1 -4.3710518e-08 1.1919963e-07 0
-4.9427786e-09 0.032318782 -0.02961245 -1 -4.3710941e-08 1.1921662e-07 0
-4.5778696e-09 0.032392897 -0.026524195 -1 -4.3714063e-08 1.1920895e-07 0
-3.4020025e-09 0.032385137 -0.016663153 -1 -4.3716536e-08 1.1921196e-07 0
-3.3777348e-09 0.032349396 -0.016472686 -1 -4.3714468e-08 1.1921063e-07 0
-3.1578633e-09 0.032390613 -0.014613155 -1 -4.3712991e-08 1.1920751e-07 0
-2.7632048e-09 0.032351699 -0.01131679 0.99999303 -0.0036323536 0.000858691 0.00013172624
-2.7379277e-09 0.032387566 -0.0110916 0.99999303 -0.0036623359 0.00073255232 0.00013209303
-2.6493847e-09 0.032310452 -0.010377125 0.99999261 -0.0037916526 0.00066653558 0.00013458478
-2.4068023e-09 0.03230352 -0.0083447369 0.99999499 -0.0031422018 0.00052367762 0.00010913217
-2.278548e-09 0.03237186 -0.0072438018 0.99999249 -0.0038357461 0.00055319018 0.00012302451
-1.4754528e-09 0.032355599 -0.00051291584 0.99997741 -0.0067014196 0.00048407083 0.0002041525
-7.7474016e-10 0.032353021 0.0053641438 -0.99996722 0.0079705557 0.0013854952 0.00025020054
3.816254e-10 0.03230546 0.015047 -1 -4.3711594e-08 1.1920967e-07 0
5.2578919e-10 0.032341875 0.016269686 -1 -4.3712667e-08 1.1920827e-07 0
1.397966e-09 0.032393418 0.023604933 -1 -4.3710799e-08 1.1920691e-07 0
2.0674999e-09 0.032345548 0.029203838 -1 -4.3712237e-08 1.1920949e-07 0
2.2345568e-09 0.032382183 0.030618643 -1 -4.3715691e-08 1.1920997e-07 0
3.2596739e-09 0.032378722 0.039216682 0.99995029 0.00040074231 0.0099600535 0.00034811685
7.7470901e-09 0.032372076 0.076857418 0.99984413 0.0056103589 0.016738549 0.00056661206
7.9355686e-09 0.03238349 0.078442678 0.99976403 0.004993889 0.021138581 0.00070548139
7.9440676e-09 0.032359689 0.078505248 0.9997617 0.004967662 0.021257415 0.00071254431
-0.00024315041 0.032471996 0.078881353 0.99971843 0.0054492014 0.023095962 0.00077318813
-8.1434823e-09 0.032474998 -0.056404617 -1 -4.3716891e-08 1.1923115e-07 0
-6.5563293e-09 0.032453071 -0.043098651 -1 -4.3710958e-08 1.1920581e-07 0
-5.3100746e-09 0.032448996 -0.032645803 -1 -4.3714319e-08 1.1921506e-07 0
-4.5250346e-09 0.032450061 -0.026060022 -1 -4.3715627e-08 1.1920844e-07 0
-4.4522057e-09 0.032480408 -0.025437962 -1 -4.3714845e-08 1.1921071e-07 0
-3.924236e-09 0.032418575 -0.021031706 -1 -4.3713392e-08 1.1920983e-07 0
-2.8059031e-09 0.032409135 -0.01165391 0.99999303 -0.0036078887 0.00095458055 0.00013043218
-2.5939286e-09 0.032419283 -0.0098720193 0.99999505 -0.003084626 0.00061633548 0.00010783636
-2.0339208e-09 0.03248753 -0.0051493072 0.99999261 -0.0037081989 0.00099172501 0.00010921016
-1.6876143e-09 0.032483697 -0.0022456846 0.99997795 -0.0064912741 0.0014034974 0.00019153318
-2.3374447e-10 0.032443799 0.0099356305 -0.99999046 0.0040445309 0.0016316262 0.00013498483
-1.4381929e-10 0.032476522 0.010701975 -0.99999344 0.0033646852 0.0013388849 0.00011121834
1.5933972e-09 0.032470491 0.025272589 -1 -4.3712696e-08 1.1921034e-07 0
2.0505251e-09 0.032487649 0.029113546 -1 -4.3711957e-08 1.1921034e-07 0
2.0710704e-09 0.032466024 0.029277964 -1 -4.3710529e-08 1.1921013e-07 0
2.0963085e-09 0.03249203 0.029499214 -1 -4.3710052e-08 1.1920987e-07 0
2.8185791e-09 0.032418977 0.035531271 0.99999428 0.00028374177 0.0033639458 0.00013216274
6.9367214e-09 0.032433186 0.070081964 -0.99999917 0.0011713867 0.00040994005 0.00050500379
7.1157191e-09 0.032479871 0.071600623 0.99999732 -0.00012936843 0.0023133694 0.00051946193
7.7687918e-09 0.032474302 0.077076957 0.99983352 0.0058072326 0.017294815 0.0005804142
8.0000486e-09 0.032488976 0.079022251 0.99971807 0.0054055178 0.023120029 0.00078224397
-8.7363645e-09 0.032531545 -0.061357338 -1 -4.3695284e-08 1.1919256e-07 0
-8.5924139e-09 0.032511689 -0.060157068 -1 -4.3697465e-08 1.1915829e-07 0
-8.4093088e-09 0.032561101 -0.058602959 -1 -4.3710433e-08 1.1920034e-07 0
-7.625685e-09 0.032541338 -0.052036688 -1 -4.3716966e-08 1.1922138e-07 0
-6.9931367e-09 0.032575272 -0.046718054 -1 -4.3711182e-08 1.1920883e-07 0
-6.5390529e-09 0.032584876 -0.042905398 -1 -4.3714163e-08 1.192074e-07 0
-3.3928667e-09 0.03253679 -0.016530909 -1 -4.3716376e-08 1.1921129e-07 0
-1.8578659e-09 0.032573808 -0.0036408158 0.99998391 -0.0053952239 0.0017372861 0.00015904904
-1.4061469e-09 0.032538801 0.00013564041 0.9999817 -0.0060211588 0.00060246803 0.00017571599
-7.7691203e-10 0.032585245 0.0054310737 -0.9999699 0.0076193227 0.001451801 0.00023940737
-6.3804184e-11 0.032561623 0.011404395 -0.99999577 0.0027163518 0.0010378762 9.3262846e-05
3.8564596e-10 0.032517385 0.015158434 -1 -4.3712316e-08 1.1920894e-07 0
9.8452757e-10 0.03254782 0.020193376 -1 -4.3710376e-08 1.1920924e-07 0
1.9066129e-09 0.032541241 0.027925976 -1 -4.370964e-08 1.1921003e-07 0
2.0763604e-09 0.032508519 0.02933792 -1 -4.3709868e-08 1.1920986e-07 0
3.0064686e-09 0.032571744 0.037163418 0.99997646 0.00056673039 0.0068407883 0.00024313582
7.4825399e-09 0.032509435 0.074688584 0.99997491 0.00077375869 0.0070526055 0.00063305354
-0.0008243699 0.032639649 -0.078085624 -0.99950784 -0.011632742 0.029134294 0.0012392756
-0.0001020669 0.032693461 0.063598119 -0.99983001 0.0076613892 0.016770978 0.00063070876
-1.0677613e-08 0.032623302 -0.077608064 -0.99959064 -0.010948935 0.026430737 0.0011603605
-1.0368923e-08 0.032674734 -0.07499972 -0.99978465 -0.0094187027 0.018491829 0.00078611448
-9.2241814e-09 0.03268401 -0.06539353 -1 -4.3713346e-08 1.1917354e-07 0
-9.0047205e-09 0.032661498 -0.063560814 -1 -4.370812e-08 1.1920418e-07 0
-8.8992644e-09 0.032690328 -0.062665612 -1 -4.3718529e-08 1.1920847e-07 0
-7.810069e-09 0.032622755 -0.053553559 -1 -4.3708656e-08 1.1921307e-07 0
-6.2952248e-09 0.032608945 -0.040851191 -1 -4.370294e-08 1.1921028e-07 0
-5.6155791e-09 0.032683562 -0.035122551 -1 -4.3714415e-08 1.1921196e-07 0
-5.540882e-09 0.032687668 -0.034494441 -1 -4.3708873e-08 1.1921199e-07 0
-3.3450815e-09 0.032673731 -0.016079845 -1 -4.3711747e-08 1.1920753e-07 0
-2.0286512e-09 0.032641124 -0.0050487826 0.9999938 -0.0033276493 0.0011202985 9.8878299e-05
-1.5625889e-09 0.032649349 -0.0011361549 0.99997723 -0.0066854381 0.00088777085 0.00020024891
-1.6040369e-10 0.032678377 0.010636871 -0.99999481 0.0030532118 0.0010517467 0.00010143514
4.5337378e-10 0.032680985 0.015786566 -1 -4.3714351e-08 1.192085e-07 0
9.8450514e-10 0.032615915 0.020218158 -1 -4.3710539e-08 1.1920925e-07 0
1.8583292e-09 0.032614116 0.027547663 -1 -4.3710862e-08 1.1920912e-07 0
3.7715782e-09 0.032682899 0.043622382 0.99988937 0.00072647462 0.014857249 0.00055113644
3.8008157e-09 0.032691695 0.043870866 0.99988866 0.00048306776 0.014918068 0.00057177502
7.2698745e-09 0.032650989 0.072956517 0.99999529 -5.3778942e-05 0.0030539634 0.00052570505
7.4220363e-09 0.032678273 0.074242949 0.99997753 0.00014740972 0.0066958489 0.0006107018
-0.00022185342 0.032707416 -0.078705728 -0.999466 -0.011728055 0.030497009 0.001287941
-0.00024585743 0.032735806 -0.078668512 -0.99946594 -0.011729016 0.030500434 0.0012879542
-9.1191881e-09 0.032729007 -0.064496286 -1 -4.3710266e-08 1.1919582e-07 0
-9.079808e-09 0.032748114 -0.064158931 -1 -4.3708585e-08 1.1918808e-07 0
-5.6034137e-09 0.032774068 -0.034987316 -1 -4.3718181e-08 1.1921423e-07 0
-5.4686011e-09 0.032783385 -0.033853009 -1 -4.3710475e-08 1.1921649e-07 0
-4.5152104e-09 0.032797959 -0.025850045 -1 -4.3712312e-08 1.1920699e-07 0
-4.0956438e-09 0.032765299 -0.022342442 -1 -4.3714721e-08 1.1920964e-07 0
-3.2369765e-09 0.032762069 -0.015140601 -1 -4.3710646e-08 1.19208e-07 0
-3.1487597e-09 0.032708555 -0.014420209 -1 -4.3713179e-08 1.1920923e-07 0
-2.93007e-09 0.032721553 -0.01258094 0.99999869 -0.0015583303 0.00044602357 6.2954416e-05
-2.165303e-09 0.032738052 -0.0061595608 0.9999944 -0.0033312207 0.00033742277 0.00010031185
-5.6241456e-10 0.032720685 0.0072800722 -0.99997628 0.006655463 0.0017959487 0.00021552318
-4.9857329e-10 0.032718051 0.0078146467 -0.99997884 0.006264023 0.0017701465 0.00019586628
8.7226781e-10 0.032759368 0.019329244 -1 -4.370937e-08 1.1920859e-07 0
1.1080743e-09 0.032784026 0.021316374 -1 -4.3708848e-08 1.1921057e-07 0
1.4689799e-09 0.032702856 0.024314104 -1 -4.3711587e-08 1.1920805e-07 0
1.7247412e-09 0.032700963 0.026458893 -1 -4.3713445e-08 1.1921225e-07 0
1.8738175e-09 0.032701019 0.027709454 -1 -4.3713083e-08 1.1920882e-07 0
2.1756195e-09 0.032740731 0.030255713 -1 -4.371261e-08 1.1921158e-07 0
2.4806326e-09 0.032730393 0.032810558 -1 -4.3709935e-08 1.192128e-07 0
3.2575811e-09 0.032731216 0.039328378 0.9999491 8.9606918e-05 0.010088787 0.00035701017
-2.24869e-05 0.032756194 0.045497753 0.999865 0.00010873302 0.016432935 0.00069227035
6.4657484e-09 0.032741863 0.066244341 -0.99991161 0.0049340799 0.012345322 0.00044974982
6.9035142e-09 0.032726999 0.069911137 0.99999988 -0.0006108121 0.00011794512 0.00048117363
7.2469821e-09 0.032711122 0.072786532 0.99999505 0.00055925525 0.0030753512 0.00053786836
7.8536635e-09 0.032740839 0.077886641 0.99977928 0.0067423945 0.019898428 0.00067364733
7.8619138e-09 0.032772183 0.077967346 0.99977249 0.006911227 0.020179188 0.00068497739
-9.378458e-09 0.032835834 -0.066632025 -1 -4.3713506e-08 1.192077e-07 0
-9.3650492e-09 0.032876246 -0.066504724 -1 -4.3714735e-08 1.1920023e-07 0
-7.756066e-09 0.032851186 -0.053016789 -1 -4.3711257e-08 1.192185e-07 0
-7.4278508e-09 0.032882471 -0.05025205 -1 -4.3714117e-08 1.1922157e-07 0
-6.8231794e-09 0.03287001 -0.045184273 -1 -4.370186e-08 1.1919904e-07 0
-6.7753705e-09 0.032821152 -0.044801138 -1 -4.370602e-08 1.1920337e-07 0
-6.2569012e-09 0.032820009 -0.04045232 -1 -4.3704954e-08 1.1920672e-07 0
-5.6737757e-09 0.032866821 -0.035543542 -1 -4.3716266e-08 1.1921883e-07 0
-5.1698787e-09 0.032811344 -0.031336889 -1 -4.3712575e-08 1.192125e-07 0
-4.6962674e-09 0.032847576 -0.027350666 -1 -4.3715914e-08 1.1921188e-07 0
-3.7792689e-09 0.032894682 -0.019641055 -1 -4.3714593e-08 1.1921048e-07 0
-3.7127537e-09 0.032867219 -0.019093154 -1 -4.3713509e-08 1.1921055e-07 0
-3.3255791e-09 0.032857019 -0.015849039 -1 -4.3710081e-08 1.1920817e-07 0
-3.0348137e-09 0.032837193 -0.013417191 -1 -4.3712966e-08 1.1920863e-07 0
-3.003509e-09 0.032806914 -0.013165692 -1 -4.3712099e-08 1.1920906e-07 0
-2.0490289e-09 0.032829635 -0.0051506027 0.99999523 -0.0029680501 0.00085901591 8.936107e-05
-1.9525261e-09 0.032864664 -0.0043282332 0.99999064 -0.0041650273 0.0011726086 0.00011312492
-1.6431528e-09 0.032856267 -0.0017361001 0.99998021 -0.0062002353 0.0010754801 0.00018391675
-1.1264591e-09 0.032837924 0.0025915126 -0.99998325 0.0057689096 0.00050034613 0.00016189001
3.1099878e-10 0.032861669 0.01465849 -1 -4.3712216e-08 1.1920893e-07 0
6.0624483e-10 0.032898922 0.017148852 -1 -4.3711182e-08 1.1920876e-07 0
2.3088038e-09 0.032813571 0.031399652 -1 -4.3710124e-08 1.1921006e-07 0
6.720434e-09 0.032859419 0.068423904 -0.9999944 0.0025191049 0.0022255899 0.00039902533
-0.00087364373 0.032905795 0.044679537 0.99988353 -0.00021001982 0.015258687 0.00062443945
-0.00085739203 0.032975942 0.044702131 0.99988347 -0.00023654233 0.015264898 0.00062193646
-1.0822817e-08 0.032932296 -0.078712821 -0.99944502 -0.012494587 0.030878115 0.0013219359
-1.0122833e-08 0.032914571 -0.072847426 -0.99986947 -0.006906447 0.01461105 0.00059909601
-9.7389456e-09 0.032971259 -0.069606356 -0.99994236 -0.004835167 0.0095872432 0.00038476958
-9.3140358e-09 0.032964699 -0.06604436 -1 -4.3706088e-08 1.1919336e-07 0
-9.1435659e-09 0.032981921 -0.064608045 -1 -4.3705821e-08 1.1917636e-07 0
-8.6843759e-09 0.032930546 -0.060774915 -1 -4.3699501e-08 1.1917449e-07 0
-8.2615514e-09 0.032918811 -0.057232309 -1 -4.3703626e-08 1.1922089e-07 0
-8.1959746e-09 0.032926142 -0.056679528 -1 -4.3706301e-08 1.1921422e-07 0
-8.1003551e-09 0.032948304 -0.055869285 -1 -4.3714124e-08 1.1922346e-07 0
-8.085502e-09 0.03294893 -0.055744462 -1 -4.37153e-08 1.1922144e-07 0
-7.9699891e-09 0.03290971 -0.054789845 -1 -4.3713307e-08 1.1921568e-07 0
-7.6979685e-09 0.032922674 -0.052503217 -1 -4.371725e-08 1.1922769e-07 0
-7.4923978e-09 0.032923151 -0.050778594 -1 -4.3712546e-08 1.1921918e-07 0
-7.4423587e-09 0.032959908 -0.050345358 -1 -4.3717602e-08 1.1922428e-07 0
-7.0950317e-09 0.032920752 -0.047446124 -1 -4.3709672e-08 1.1920653e-07 0
-6.9504833e-09 0.032947373 -0.046223808 -1 -4.370948e-08 1.1920586e-07 0
-6.9020905e-09 0.032938868 -0.045820978 -1 -4.3705473e-08 1.1920635e-07 0
-6.7106338e-09 0.032950316 -0.044210725 -1 -4.3709477e-08 1.1920745e-07 0
-6.3669297e-09 0.032906312 -0.041343659 -1 -4.370699e-08 1.1920731e-07 0
-6.063245e-09 0.032992586 -0.038764533 -1 -4.3715854e-08 1.1922188e-07 0
-5.6945568e-09 0.032939091 -0.035691369 -1 -4.371725e-08 1.192175e-07 0
-4.9506901e-09 0.032988805 -0.029433135 -1 -4.3708301e-08 1.1921671e-07 0
-4.2281365e-09 0.032961335 -0.023381989 -1 -4.3712252e-08 1.1921279e-07 0
-3.477113e-09 0.032987524 -0.017072344 -1 -4.3715119e-08 1.192103e-07 0
-2.8892559e-09 0.032997232 -0.012137479 0.99999994 -0.00039353705 0.00011122854 1.0647953e-05
-2.6767233e-09 0.032940451 -0.01037545 0.99999642 -0.0026265774 0.00058610033 9.7784912e-05
-2.2927087e-09 0.032990769 -0.007135652 0.99999642 -0.0026675719 0.00019119158 8.2204926e-05
-2.0694304e-09 0.032924745 -0.0052868673 0.99999523 -0.002969926 0.00088565599 8.9068577e-05
-1.5763373e-09 0.032982823 -0.0011292071 0.99997801 -0.0065845409 0.00079267437 0.00019405011
-7.9551543e-10 0.032908306 0.0053934776 -0.999973 0.0072362507 0.0012879097 0.00022890238
-5.4960597e-10 0.032989543 0.0074861036 -0.99998039 0.0060624587 0.0015741023 0.00018825688
-4.8301307e-10 0.032961585 0.0080344724 -0.99998248 0.0056856684 0.0016840604 0.00018496951
-4.0539627e-10 0.032997157 0.0086986134 -0.99998701 0.0049456637 0.0012335447 0.00015631902
2.4923108e-10 0.032946233 0.014171353 -1 -4.3711029e-08 1.1920917e-07 0
5.3252358e-10 0.032978795 0.016559722 -1 -4.3712298e-08 1.1920757e-07 0
7.4789441e-10 0.032967564 0.018362265 -1 -4.3709992e-08 1.1920922e-07 0
9.7224873e-10 0.032924358 0.020228442 -1 -4.3709615e-08 1.1920832e-07 0
1.0050432e-09 0.032951307 0.020513425 -1 -4.3710326e-08 1.1920932e-07 0
1.5300338e-09 0.03293379 0.02491094 -1 -4.371358e-08 1.1921082e-07 0
2.0810034e-09 0.03298261 0.029550709 -1 -4.3713815e-08 1.1920895e-07 0
3.5580916e-09 0.03291418 0.041916333 0.9999246 2.5932819e-05 0.012280066 0.00045822447
7.0854798e-09 0.032925658 0.071510419 0.99999672 0.00094059773 0.0023892857 0.00057631655
7.9089064e-09 0.032956313 0.078429066 0.99973464 0.0078210644 0.021667359 0.00074449455
-0.00027726396 0.033007003 0.063612163 -0.9998185 0.007843731 0.017359626 0.0006670453
-1.040217e-08 0.033087585 -0.075127229 -0.99976707 -0.0091010742 0.019569365 0.00082634209
-9.9603881e-09 0.033071179 -0.071427315 -0.9999088 -0.0056789201 0.012254873 0.00049248879
-9.7007167e-09 0.03304119 -0.069260031 -0.99995106 -0.003801547 0.0091350684 0.00034356918
-9.5149817e-09 0.033049654 -0.067698866 -0.99998111 -0.0016964885 0.0059136581 0.00022459673
-8.9782768e-09 0.033010177 -0.063211136 -1 -4.3717165e-08 1.1922425e-07 0
-8.925447e-09 0.033038989 -0.062757403 -1 -4.3720839e-08 1.1922725e-07 0
-8.9092556e-09 0.033036541 -0.062622473 -1 -4.3720785e-08 1.1922643e-07 0
-8.5288727e-09 0.033070493 -0.059419148 -1 -4.3699529e-08 1.1916947e-07 0
-8.1907032e-09 0.033013556 -0.056603257 -1 -4.370558e-08 1.1921644e-07 0
-8.0794571e-09 0.033069678 -0.055649474 -1 -4.3714191e-08 1.1921522e-07 0
-6.3332477e-09 0.033060305 -0.04100465 -1 -4.3701956e-08 1.1921077e-07 0
-5.561521e-09 0.03301844 -0.034546286 -1 -4.3714515e-08 1.1921657e-07 0
-4.5747144e-09 0.033051327 -0.026256293 -1 -4.3719961e-08 1.1921152e-07 0
-3.9531107e-09 0.033014093 -0.021055561 -1 -4.3711491e-08 1.1920936e-07 0
-3.541873e-09 0.033027872 -0.017600795 -1 -4.3712731e-08 1.1921203e-07 0
-3.3876386e-09 0.033065919 -0.016293032 -1 -4.3713289e-08 1.192096e-07 0
-3.2168819e-09 0.033051919 -0.014865753 -1 -4.3713321e-08 1.192095e-07 0
-2.3177451e-09 0.033035617 -0.0073292265 0.99999654 -0.0026262437 0.00017842773 8.331237e-05
-1.8393955e-09 0.033052567 -0.0033103253 0.99998379 -0.0055043055 0.0014691019 0.00015693642
-5.6078919e-11 0.033052493 0.01164919 -0.99999595 0.0026311837 0.0011424237 9.2265451e-05
-4.2724602e-11 0.033020731 0.011749567 -0.99999595 0.00261668 0.0011503708 9.2089904e-05
1.1602638e-09 0.033017073 0.021839624 -1 -4.3709687e-08 1.1921027e-07 0
2.74556e-09 0.033082973 0.035162214 0.99999672 1.2123517e-05 0.0025475621 9.9971956e-05
2.8036271e-09 0.033017993 0.035625491 0.99999446 3.5933183e-05 0.0033218944 0.00013452308
3.0843927e-09 0.033021033 0.037981838 0.99997056 0.00030638181 0.0076654251 0.00026323003
3.3599419e-09 0.033046272 0.040302567 0.99994153 -0.00026427541 0.010819538 0.0003922352
3.8315733e-09 0.03301663 0.04424803 0.99989194 -0.0001783796 0.014705954 0.00059663487
3.9019845e-09 0.033014037 0.044837728 0.99988246 -0.00022920217 0.015328056 0.00062661408
6.0981002e-09 0.033064455 0.063278571 -0.99980557 0.0086983247 0.01769652 0.00069347915
6.1510592e-09 0.033084787 0.063730277 -0.99982738 0.0076100836 0.016951293 0.00064717181
6.3780057e-09 0.033088036 0.065635234 -0.9999001 0.0054452973 0.013042963 0.00047296064
6.9197816e-09 0.033027083 0.070157632 0.99999964 -0.00071281515 0.00056575326 0.00049480988
7.3321882e-09 0.033041093 0.073622286 0.99998593 0.0018001383 0.0049843248 0.00058623764
7.9252445e-09 0.033088703 0.07861466 0.99971938 0.0078553176 0.022350091 0.00077843963
-1.0274427e-08 0.033193976 -0.074016631 -0.99982572 -0.0080592306 0.01683824 0.00071429455
-9.9014716e-09 0.033167537 -0.070897758 -0.99992269 -0.0051410231 0.011319119 0.0004632129
-8.2606286e-09 0.033188615 -0.057125639 -1 -4.3707196e-08 1.1922037e-07 0
-8.1990894e-09 0.033178888 -0.05661298 -1 -4.371314e-08 1.1922799e-07 0
-6.7001649e-09 0.033100706 -0.044067759 -1 -4.370764e-08 1.1921006e-07 0
-4.9562505e-09 0.033105008 -0.029437169 -1 -4.3707512e-08 1.1921546e-07 0
-4.5207798e-09 0.033195049 -0.02575116 -1 -4.3719886e-08 1.1921043e-07 0
-4.4801389e-09 0.033180438 -0.025415594 -1 -4.3721613e-08 1.1921412e-07 0
-4.3035495e-09 0.033195168 -0.023928858 -1 -4.3711445e-08 1.1921459e-07 0
-3.2143745e-09 0.033146959 -0.014809873 -1 -4.3712774e-08 1.1920834e-07 0
-3.1273253e-09 0.033185821 -0.0140654 -1 -4.3710536e-08 1.1920822e-07 0
-2.9388718e-09 0.033141736 -0.012500703 -1 -4.3716614e-08 1.1921011e-07 0
3.4668635e-10 0.033102874 0.015046303 -1 -4.3713232e-08 1.1920769e-07 0
8.7625307e-10 0.033153418 0.019507164 -1 -4.3710184e-08 1.1920852e-07 0
1.2138797e-09 0.033190183 0.022352861 -1 -4.3708809e-08 1.1921024e-07 0
1.7748509e-09 0.033102661 0.027026536 -1 -4.3713971e-08 1.1920972e-07 0
1.8062483e-09 0.033143211 0.027304785 -1 -4.3713076e-08 1.1921041e-07 0
3.4225145e-09 0.033146638 0.040864266 0.99993962 -0.00071988208 0.010966274 0.00040876638
3.4883694e-09 0.033132039 0.041411344 0.99992973 -0.00045507692 0.011844858 0.00044842306
6.553774e-09 0.033176307 0.067142054 -0.99993503 0.0046182373 0.010428889 0.00037967958
7.5126687e-09 0.033144526 0.07517419 0.99990547 0.0048632524 0.012860143 0.00058886182
-1.0304256e-08 0.033273149 -0.074237831 -0.99980253 -0.0085512912 0.017938981 0.00077239098
-1.0232264e-08 0.033261992 -0.073638007 -0.99982667 -0.0081018833 0.016763957 0.00070635742
-9.7628794e-09 0.033238377 -0.069709182 -0.999942 -0.0043920339 0.0098342579 0.00039202059
-9.2276657e-09 0.033227682 -0.065223403 -1 -4.3707423e-08 1.1917309e-07 0
-9.0709671e-09 0.033297807 -0.063883208 -1 -4.370591e-08 1.1919219e-07 0
-8.3919387e-09 0.033283643 -0.058192302 -1 -4.3701831e-08 1.1920064e-07 0
-7.8996543e-09 0.033285666 -0.054061979 -1 -4.3711708e-08 1.1922019e-07 0
-7.6184534e-09 0.033209201 -0.051731136 -1 -4.3713854e-08 1.1922486e-07 0
-7.0263955e-09 0.033239186 -0.046753604 -1 -4.3709967e-08 1.1921006e-07 0
-6.9578583e-09 0.033211645 -0.046188772 -1 -4.3704595e-08 1.1920907e-07 0
-6.9474178e-09 0.033278223 -0.046076778 -1 -4.3704961e-08 1.1920701e-07 0
-6.8312183e-09 0.033262745 -0.0451077 -1 -4.3707946e-08 1.1920461e-07 0
-6.1999921e-09 0.03325589 -0.039815102 -1 -4.3712713e-08 1.1921435e-07 0
-6.0743703e-09 0.033295862 -0.038746655 -1 -4.3715634e-08 1.1921958e-07 0
-5.9869421e-09 0.033264708 -0.038024675 -1 -4.3715911e-08 1.1921452e-07 0
-5.4557994e-09 0.033217188 -0.033586554 -1 -4.3712969e-08 1.1921715e-07 0
-5.3720153e-09 0.033280477 -0.032860514 -1 -4.3717943e-08 1.1921878e-07 0
-5.3189333e-09 0.033283405 -0.032414157 -1 -4.3714643e-08 1.1922049e-07 0
